ply
format ascii 1.0
comment generated by flying_drone_stack OccupancyMap
element vertex 427
property float x
property float y
property float z
property float log_odds
end_header
-1.1000 -0.4000 0.4000 2.1000
2.8000 -0.2000 0.3500 2.8000
0.1000 -1.7500 0.3000 3.0000
-0.0500 0.1000 2.7000 3.0000
0.1000 1.0500 0.3500 1.4000
0.2500 -1.9000 0.4000 2.1000
-0.0500 -1.5000 0.2000 2.8000
1.0000 0.4500 0.2500 2.8000
0.0000 -1.6500 0.3500 1.4000
0.1000 -1.5500 0.0500 0.7000
-0.1000 0.0000 0.1000 1.7000
0.1000 -1.8000 0.3000 3.0000
0.0500 0.0500 2.7000 3.0000
0.1000 -1.7000 0.2000 3.0000
0.0500 0.0000 2.7000 3.0000
2.8000 0.0500 0.3000 3.0000
0.2000 -0.1500 2.7000 0.7000
2.7500 -0.1500 0.3000 3.0000
-1.0500 -0.5500 0.2500 1.4000
0.4000 0.2000 2.7000 0.7000
0.1000 -0.3000 0.0000 1.3000
0.1500 -1.8500 0.2500 1.4000
-1.3000 -0.3500 0.3000 1.8000
-1.0000 1.2000 0.0000 3.0000
0.0000 0.9500 0.3000 3.0000
-0.6000 0.9500 0.4000 0.7000
2.7500 0.0000 -0.3500 0.7000
0.2000 -1.8500 0.4000 1.4000
0.1000 1.1000 0.1500 0.7000
2.8000 -0.0500 0.3000 3.0000
2.4000 0.0000 0.0000 0.7000
-0.0500 1.1000 0.0000 0.7000
0.0000 -0.0500 0.0000 3.0000
0.3000 -0.0500 2.7000 0.7000
-0.4000 -0.0500 0.3500 0.7000
1.0500 0.5500 0.2500 1.4000
0.0000 -1.4000 0.0000 1.0000
2.8000 -0.0500 0.2500 2.1000
-0.2000 0.9500 0.1000 0.7000
0.0000 -0.0500 2.7000 3.0000
0.1500 -0.1500 2.7000 2.1000
0.0500 0.9500 0.4000 3.0000
0.0500 0.9500 0.3000 3.0000
2.8000 -0.1500 0.3500 3.0000
2.4500 0.9500 0.3500 0.7000
0.0000 0.0000 2.7000 3.0000
0.0000 -1.6000 0.0000 1.4000
2.8000 0.0000 0.3000 3.0000
2.4500 -0.1000 0.2000 0.6000
0.0000 -0.1500 2.7000 2.1000
-0.1500 0.0500 2.7000 0.7000
-1.1000 -0.4500 0.3000 3.0000
-0.3500 0.8000 0.3000 1.8000
0.0500 0.9500 0.2000 0.7000
-0.0500 -1.6500 0.1000 1.4000
0.0500 -0.1500 0.0000 3.0000
-1.2500 -0.7500 0.3000 1.4000
-0.1000 0.2000 2.7000 0.7000
0.0000 0.9500 0.2500 3.0000
2.5500 -0.1000 0.2000 1.4000
0.5000 -1.8500 0.6000 0.7000
0.2000 -1.8500 0.2500 0.7000
1.0000 0.5500 0.2500 0.7000
-0.3000 -0.0500 2.7000 0.7000
0.2000 -1.8000 0.3000 1.0000
-0.5500 0.9000 0.3000 3.0000
0.1000 -0.1500 0.0000 3.0000
2.5000 0.0000 0.0500 0.7000
-0.8000 2.3000 0.0500 1.4000
-0.0500 0.0500 0.0000 3.0000
2.8000 0.0000 0.3500 3.0000
0.0500 -0.3000 2.7000 3.0000
0.0000 1.1500 0.0000 3.0000
0.1000 -0.2000 0.0000 3.0000
-0.0500 -1.6000 0.3500 3.0000
2.3000 1.2500 0.3500 0.7000
2.2000 1.1500 0.3500 2.1000
0.0000 1.1000 0.2500 3.0000
-1.1000 0.9000 0.1000 0.7000
-1.1500 -0.4000 0.3500 3.0000
0.2000 -1.9000 0.4000 1.4000
-0.6000 0.9500 0.5000 0.7000
-0.1000 1.1000 -0.0500 0.7000
2.7500 -0.1500 0.3500 3.0000
0.1000 -0.2500 2.7000 3.0000
-1.2000 -0.4000 0.2500 1.4000
0.0500 1.0500 0.3500 3.0000
0.1500 -0.1000 2.7000 1.4000
0.5500 0.1500 2.6500 0.7000
0.0000 -1.7000 0.3500 3.0000
-1.3000 -0.8000 0.2500 0.7000
-0.0500 0.0000 2.7000 3.0000
-0.0500 1.0500 0.0000 0.7000
-0.2000 0.1500 2.7500 0.7000
2.1000 0.7500 0.3000 0.7000
0.0500 -0.2000 0.0000 3.0000
2.8500 0.3500 0.4500 0.7000
0.1000 -1.8000 0.3500 3.0000
0.1000 -1.8500 0.3500 3.0000
0.2000 -1.6000 0.1000 0.7000
2.6000 0.8000 0.4000 0.7000
0.1000 -1.8500 0.4500 3.0000
-1.2500 -0.7500 0.3500 0.7000
2.7000 -0.0500 -0.3000 0.7000
2.3000 1.1000 0.3500 1.4000
0.0500 -1.4500 -0.0500 0.7000
-0.4000 0.9000 0.0500 0.7000
-0.1000 0.0500 2.7000 2.8000
2.7500 -0.2000 0.3000 3.0000
0.1000 -1.7500 0.2500 0.7000
0.2500 -1.8500 0.3000 1.4000
-1.0500 -0.4500 0.3000 3.0000
2.8000 0.1000 0.2500 2.1000
-1.1000 -0.5500 0.3500 1.0000
0.1000 -1.8500 0.4000 1.4000
0.0500 1.0000 -0.0500 1.4000
-0.0500 1.1000 -0.0500 0.7000
-0.0500 -1.6500 0.1500 1.4000
2.4500 1.1000 0.3500 1.4000
2.5000 -0.0500 0.2000 0.7000
-0.0500 0.9500 0.3500 3.0000
-0.1000 1.1000 0.0000 0.7000
-0.9000 -0.1500 0.3500 3.0000
2.2500 1.2000 0.3500 2.8000
-0.1000 0.1000 2.7500 0.7000
0.3000 -1.9000 0.5000 0.7000
-1.0500 1.2000 0.0000 3.0000
-0.3500 0.1500 2.7000 0.7000
-0.5000 0.9000 0.3000 3.0000
-1.2500 -0.7000 0.3500 1.4000
0.2000 -0.3500 2.7000 1.4000
-0.2500 0.0000 0.1500 1.4000
-0.4500 0.8500 0.3000 1.4000
2.9000 0.0000 0.5000 0.7000
0.0000 -1.5500 0.0000 1.4000
0.0500 0.2500 2.7000 1.4000
0.0000 1.1000 0.0000 3.0000
-0.0500 -0.0500 2.7000 3.0000
2.7500 -0.0500 0.3500 3.0000
0.0000 0.1000 0.0000 3.0000
-1.3000 0.2500 0.1500 0.7000
0.3000 1.4500 0.3000 0.7000
2.7500 -0.1000 0.3500 0.7000
0.2500 -1.5500 0.0500 0.7000
0.6000 1.4000 0.3500 0.7000
-1.2500 -0.3500 0.3000 1.4000
2.3000 0.8500 0.3500 0.9000
-0.0500 0.9500 0.2500 3.0000
-0.1000 1.1000 0.0500 0.7000
2.5000 0.9500 0.3500 0.7000
0.0500 -0.1000 2.7000 3.0000
-1.2000 -0.3500 0.3000 3.0000
-0.1000 -1.5500 0.3000 3.0000
0.3500 -0.0500 2.7000 0.7000
0.1500 -0.0500 2.7000 3.0000
-1.0500 -0.4500 0.3500 3.0000
2.7500 0.0000 0.3500 1.4000
0.8500 0.6000 0.4000 0.7000
2.2000 1.1000 0.3500 0.7000
2.2500 1.2500 0.3500 1.4000
0.1000 -0.2000 2.7500 0.7000
-0.8500 -0.2500 0.3500 3.0000
0.2000 -1.9000 0.3000 0.7000
0.0000 -1.5500 0.0500 2.1000
2.6500 -0.1000 0.2500 0.7000
0.0500 0.9500 0.3500 3.0000
2.2000 1.0500 0.3000 0.7000
0.1000 -1.7000 0.2500 1.0000
-0.1500 1.0500 0.0000 0.7000
-0.3000 0.8500 0.3000 3.0000
-0.0500 1.0500 -0.0500 1.4000
2.3000 0.0000 0.0500 0.8000
-1.0500 -0.4500 0.4000 0.7000
1.4500 1.1000 0.0500 3.0000
0.1000 0.0000 2.7000 0.7000
-0.1500 -0.2000 2.7000 0.7000
-1.2500 -0.8500 0.3000 1.4000
-0.6000 0.1000 2.7500 0.7000
0.6500 0.7500 0.4000 0.7000
-0.5500 0.9000 0.3500 1.4000
2.7500 0.0000 -0.2000 0.7000
0.1500 0.1000 2.7000 0.7000
2.8500 0.0000 0.2500 2.1000
-1.1500 -0.4000 0.3000 3.0000
-1.3000 0.6000 0.1500 0.7000
-1.0500 -0.5000 0.3500 3.0000
0.0500 -1.8000 0.3500 2.8000
2.7500 -0.2500 0.2500 0.7000
-0.2000 0.8500 0.3000 2.1000
-1.1000 -0.4500 0.3500 3.0000
0.0500 1.0500 0.0000 1.4000
-0.1000 -1.5500 0.2500 3.0000
-0.1000 0.0000 2.7000 3.0000
-0.9000 1.1500 2.7000 3.0000
-0.9000 -0.2500 0.3500 3.0000
-0.1500 0.0000 0.0500 0.7000
2.8000 0.0500 0.2500 0.7000
2.8000 -0.1500 0.3000 3.0000
0.0500 -0.1000 0.0000 3.0000
0.2500 -1.9000 0.3500 3.0000
0.1000 0.0500 2.7000 0.7000
-0.0500 -1.6000 0.0500 0.7000
0.0500 -1.7000 0.2500 0.7000
0.0000 0.0000 0.0000 3.0000
2.6000 -0.1000 0.2500 1.4000
-1.3000 -0.7500 0.3000 0.7000
0.0000 0.0000 2.7500 1.4000
0.1000 -0.1000 2.7000 2.8000
-0.4000 0.9000 0.3000 3.0000
0.2000 -1.5500 -0.0500 0.7000
0.0500 0.0500 0.0000 3.0000
-1.2500 -0.8000 0.3000 2.8000
0.0000 0.3000 2.7000 0.7000
-0.3500 0.0000 0.2500 0.7000
1.4000 0.6000 0.3000 1.0000
-0.9000 -0.1500 0.3000 3.0000
2.7500 -0.2000 0.3500 1.4000
2.8000 0.0000 0.2500 1.4000
0.1500 -1.6000 0.1000 0.7000
0.4000 0.0000 2.6500 0.7000
-1.3500 0.0000 0.1500 0.7000
-1.2500 -0.8500 0.2500 1.4000
-1.1000 -0.4000 0.3500 2.1000
-0.3000 0.8000 0.3000 3.0000
0.0500 1.0000 0.3000 3.0000
0.0000 -1.6000 -0.0500 1.4000
-0.1000 0.0500 2.7500 0.7000
2.7500 0.0500 0.3500 2.8000
0.0500 1.1000 0.1500 3.0000
0.1500 0.0500 2.7000 0.7000
0.4500 -0.1000 2.7000 0.7000
0.3000 -1.6000 0.1000 1.4000
-0.5500 0.0000 2.7000 0.7000
-0.3500 0.8000 0.2500 3.0000
0.0000 1.1000 0.3000 2.1000
2.8000 -0.0500 0.3500 1.4000
-0.0500 -0.1000 2.7000 2.1000
0.1000 -0.1500 2.7000 3.0000
2.3500 0.0000 0.0500 2.6000
2.4000 1.1500 0.4000 0.7000
0.1000 -1.8000 0.2500 0.7000
0.4500 -0.2000 2.7000 0.7000
-0.1500 0.0000 0.1000 1.4000
0.0500 1.1000 0.3500 1.4000
0.1000 0.9500 0.3000 2.1000
0.2000 -1.8500 0.3000 3.0000
0.0000 -0.2500 2.7000 1.4000
-1.3000 -0.4000 0.2500 0.7000
0.1500 -1.8000 0.3000 1.0000
2.8000 0.1000 0.3000 0.7000
-0.9500 -0.1500 0.3500 2.8000
-1.3500 -0.3500 0.2500 0.7000
-0.0500 0.0000 0.0000 3.0000
-0.1000 0.0000 0.0500 1.0000
-0.0500 0.9500 0.3000 3.0000
-0.2500 0.8500 0.2500 3.0000
0.1000 -1.5000 0.0500 0.7000
2.4500 -0.0500 0.0500 0.7000
-0.9500 -0.2000 0.0000 3.0000
0.3500 -0.1500 2.7000 0.7000
-0.1500 0.0000 0.0000 2.2000
-0.4500 0.9000 0.3000 3.0000
0.1500 -0.3000 2.7000 0.7000
0.0000 0.0500 0.0000 3.0000
0.0500 -1.5000 -0.0500 0.7000
0.0500 0.9500 0.2500 1.4000
0.8000 0.1000 0.0000 0.7000
-0.1000 0.9500 0.2500 0.7000
2.2500 1.1000 0.3500 0.7000
-0.2500 0.8500 0.3500 2.8000
0.0500 1.0000 0.3500 3.0000
-0.1000 -1.6000 0.3500 3.0000
2.7000 0.6000 0.4500 0.7000
-1.2500 -0.4000 0.2500 1.4000
-1.1000 -0.4000 0.3000 3.0000
0.1000 -1.7500 0.2000 0.7000
-0.9000 -0.2000 0.3500 3.0000
-1.2000 -0.6500 0.3500 1.4000
0.1500 -0.2000 0.0000 0.6000
-0.2000 0.8000 0.3000 0.7000
0.1000 1.0000 0.2000 1.4000
0.7500 0.0500 0.0500 0.7000
0.0500 0.2000 2.7000 1.4000
-0.1000 -0.1500 2.7000 1.4000
0.0500 0.0000 0.0000 0.5000
-0.2500 0.8500 0.3000 3.0000
2.5000 0.9500 0.4000 0.7000
-1.1000 -0.4500 0.4000 1.4000
2.4500 1.0500 0.3500 0.7000
2.3500 -0.0500 0.0500 1.0000
0.2000 -1.8000 0.2500 3.0000
0.0500 -0.2000 2.7000 3.0000
-0.2500 -0.2000 2.7000 0.7000
0.1500 -0.1500 0.0000 1.0000
-0.1500 -0.2500 2.7500 0.7000
-0.8000 2.3000 0.0000 3.0000
0.0500 -0.2500 2.7000 3.0000
0.2500 -1.8500 0.2500 3.0000
-0.4000 0.8500 0.3000 2.6000
-1.1000 -0.5000 0.2500 1.4000
0.0500 -1.5500 0.0000 0.7000
0.0500 -0.1500 2.7000 3.0000
0.0000 1.0500 0.3500 1.4000
0.0000 0.9500 0.3500 3.0000
2.7500 -0.1000 0.3000 1.4000
0.0500 1.1000 0.0500 2.8000
-0.0500 -1.5000 0.1500 3.0000
-1.1000 -0.5000 0.3500 0.7000
0.0500 1.0000 0.2000 0.7000
0.5500 0.1500 2.7000 0.7000
-1.1000 -0.4000 0.2000 0.7000
2.8000 -0.2000 0.2500 2.1000
-0.9000 -0.1000 0.3500 3.0000
2.5000 -0.0500 0.1000 0.7000
1.0500 0.6000 0.2500 0.7000
-0.9500 -0.2000 0.3500 3.0000
-1.1000 -0.6000 0.3000 2.1000
0.2000 -1.8500 0.3500 3.0000
1.6500 0.9500 0.3000 0.7000
-1.3500 -0.3500 0.3000 3.0000
0.1000 -0.3000 2.7000 3.0000
-1.1500 -0.3500 0.3000 0.7000
2.4500 0.9500 0.4000 0.7000
-0.0500 0.2000 2.7000 3.0000
0.1000 1.0000 0.3000 0.7000
0.0500 1.1000 0.1000 3.0000
-0.2500 0.8000 0.3000 1.4000
2.8500 0.0000 0.3000 0.7000
-0.1000 -0.0500 0.0000 1.4000
-0.0500 0.1500 2.7000 3.0000
-1.1000 -0.5000 0.3000 1.4000
0.0000 -0.1000 2.7000 3.0000
-0.1000 1.0500 -0.0500 0.7000
-0.4500 0.9000 0.3500 2.8000
-0.1000 -0.1000 2.7000 0.7000
1.5000 1.1000 0.0500 3.0000
0.0500 0.1000 2.7000 3.0000
-0.2000 1.0500 -0.0500 1.4000
-1.0500 -0.5000 0.3000 3.0000
-0.1500 0.0000 2.7000 0.7000
0.0000 1.1000 0.2000 2.8000
-0.1000 0.1000 2.7000 1.4000
0.0500 0.1500 2.7000 2.1000
2.7000 -0.0500 -0.2500 0.7000
-0.1000 -1.5500 0.3500 0.7000
0.0500 1.0500 0.0500 1.4000
-1.4000 -0.3500 0.3000 3.0000
0.1000 0.9500 0.2500 0.7000
0.1500 -0.2500 2.7000 3.0000
0.1000 -0.2000 2.7000 3.0000
2.2000 1.2500 0.3500 1.4000
0.2500 0.0500 2.7000 0.7000
2.4000 0.9000 0.3500 1.4000
0.5000 -0.1500 2.7000 0.7000
-1.1000 -0.4500 0.2500 0.7000
0.1000 1.1000 0.1000 0.7000
2.3000 1.0000 0.3500 0.6000
-1.1000 -0.5500 0.3000 3.0000
-0.5000 0.9000 0.3500 1.4000
0.2500 0.1500 2.7000 0.7000
-0.1500 1.1000 0.0500 0.7000
0.0000 -0.2000 2.7000 0.7000
-0.9000 1.2000 2.7000 3.0000
0.1000 -0.2500 0.0000 3.0000
0.1500 -1.8500 0.3000 3.0000
0.0000 -1.5500 -0.0500 0.7000
2.3000 1.3000 0.4000 1.4000
-0.3000 0.0000 2.7500 0.7000
0.0000 1.1000 0.0500 3.0000
-0.7000 0.0000 2.7000 0.7000
2.8000 0.0500 0.3500 3.0000
-1.3000 -0.8000 0.3000 1.4000
-0.4000 0.8500 0.2500 2.8000
0.0000 -1.6000 0.0500 0.7000
0.1500 -1.5500 -0.1000 0.7000
0.0000 0.1500 2.7000 1.4000
1.0000 0.5000 0.2500 2.8000
-0.4500 0.8500 0.2500 3.0000
0.1000 -1.8000 0.4000 0.7000
-1.1000 -0.6000 0.2500 0.7000
0.3000 -1.6000 0.0500 0.7000
-0.0500 0.2500 2.7000 3.0000
2.4000 1.1000 0.3500 2.1000
2.3000 1.2500 0.4000 0.7000
1.0500 0.6500 0.2500 0.7000
0.2000 -0.3000 2.7000 0.7000
0.0000 0.1000 2.7000 3.0000
-1.0500 -0.5000 0.2500 3.0000
0.0500 -1.7500 0.3500 3.0000
0.0000 1.0500 0.3000 3.0000
-0.1500 1.0500 -0.0500 1.4000
0.1500 -1.8000 0.2500 3.0000
-0.0500 -0.0500 0.0000 3.0000
-0.9500 -0.1000 0.3500 0.7000
-0.1000 -1.5000 0.2500 0.7000
-0.1000 -1.6000 0.3000 0.7000
-0.1000 0.1500 2.7000 2.1000
0.2000 -1.9000 0.4500 1.4000
2.4500 1.1500 0.3500 0.7000
2.4500 1.2500 0.4000 1.4000
0.1500 -1.8500 0.3500 2.1000
-0.3500 0.8500 0.3000 3.0000
-1.1500 -0.4500 0.3000 2.1000
-0.0500 0.9500 0.1500 0.7000
0.1000 1.0000 0.3500 0.7000
-0.0500 0.0500 2.7000 3.0000
0.1000 -0.0500 2.7000 1.4000
0.1000 -1.5500 -0.0500 0.7000
0.2500 -1.9000 0.3000 2.1000
0.0000 0.0500 2.7000 3.0000
-0.6000 0.9000 0.5000 0.7000
0.0000 1.0500 -0.0500 0.7000
2.5000 1.1500 0.3500 0.7000
0.0500 -0.0500 2.7000 3.0000
-0.6000 0.9500 0.4500 1.4000
2.7500 -0.2500 0.3000 0.7000
0.2000 -1.9000 0.3500 3.0000
-0.6000 0.8000 0.1000 0.7000
0.1000 0.9500 0.3500 2.8000
-0.3000 0.8500 0.3500 3.0000
-1.0500 -0.5500 0.3000 3.0000
-0.5500 0.9000 0.5000 0.7000
0.1500 -0.2000 2.7000 1.4000
0.0000 0.2500 2.7000 0.7000
-0.7500 0.0500 2.7000 0.7000
-0.3500 0.8500 0.3500 1.4000
-0.9000 -0.2000 0.0000 3.0000
